X,Y,Z,Horizontal_Uncertainty,Vertical_Uncertainty
-33.79791562565684,-32.02053698684563,61.971830081536254,0.989383031196803,0.30090198107094535
108.69350024740477,1.5467951099240183,7.079627051258196,0.9570241824255173,0.3151958317017983
-11.171500978257198,-115.13657164855654,0.13301148976525262,0.7747270936277586,0.34088754712939484
-73.64582128591981,-42.786581548656166,-0.0367712670620956,0.7208817791795634,0.25121589977496495
111.57313875091641,17.689589840421235,0.21732306455461092,0.8385235358471873,0.2516148593170551
0.6876324537507545,-4.289801868649106,138.29238487605386,0.8489530527161289,0.35324122872905295
-30.424240113284498,106.77933748180502,-0.42290651742971075,0.895489677814046,0.460101004422766
-60.01473667463767,-85.78775291847654,-0.2714982627578002,0.8807543882547366,0.3524213545859469
-93.36285750186187,-77.72058189717914,0.29715894847930846,0.5581118638273035,0.33354134424347914
-101.09078051449787,-31.416443387316896,0.021871486950818197,0.9273638153632107,0.2532105618090442
77.77194107195749,-92.05362147838419,0.1282926561161582,0.8712232121680917,0.3462714378859427
-71.97227179494978,-73.51001643407739,-0.04549667986885558,0.9099495689056667,0.2658753126709511
-96.68179217818466,-61.90634871100971,-0.31918156331931047,0.5072453680684286,0.4712957815744586
-70.9258434656431,-8.586101554259438,46.94687336435721,0.973433104288501,0.393643466715605
103.5722671741214,-23.23546595424635,0.19078312571325345,0.934384459069016,0.25573624858827887
93.18946048687768,80.80742168760119,-0.05879925565814989,0.781320288562743,0.2500432715722881
-31.79829060522461,82.94719703481992,1.2093156825140547,0.9511431557640343,0.31840234291645636
43.61583535236336,-19.464122069608997,65.27728415072316,0.5226558431870669,0.428086747573466
19.188945747820085,-67.68832413905008,36.0276595943335,0.5968313975046982,0.38409032074946714
-51.388223972330415,55.46731080650569,9.997049474161518,0.8060897373822238,0.31564620708393565
32.77074778764878,54.507020382349204,34.59301815107141,0.6608724314059043,0.36822404215927645
101.63958483259111,-56.470877017544886,-0.050116775427483884,0.7861154224208613,0.44010188170128295
-101.44738412660806,-107.39795792245987,-0.21158950646966676,0.8819998147669752,0.408150332906365
-39.05144463642368,-3.851618533870799,91.91158616711378,0.9223120646752327,0.40581958015147196
-90.38151598398956,83.34379622606717,-0.19709038198650225,0.7080258772040187,0.4943673814453035
87.48063658843918,58.58512594281163,0.025284877633281466,0.7532359246589837,0.40387417787919666
3.0517192964353494,111.03798642928916,1.6179601989544619,0.6127458968960215,0.2956387839827248
-6.319500297985874,-106.04366611963128,1.4564493280303488,0.9792040113694449,0.4231793778040876
76.26490395519512,10.715309091639275,36.694166599429764,0.9131508817672209,0.2930215758844469
-40.426566762957016,47.1405742482844,35.14974626910649,0.935034592878808,0.3305722048314861
-19.90645929760505,65.4551266980724,36.93162305458401,0.5732738260029558,0.47089567483969974
-71.38934050318738,98.33048566603388,-0.05148817664513389,0.9418979336903226,0.3562239309535262
-83.56248764835462,-25.809414981879186,7.039672245878555,0.5704701870875561,0.3144231131882538
57.22280367580426,-7.28938078368365,63.43710390966741,0.5464685956844422,0.4470706305076909
-28.60639739866011,32.96384067640261,68.31627497404784,0.8021735588548871,0.32613374564935016
88.4322700526847,61.94442393854657,-0.16469102465756724,0.5545125387041501,0.3211596488780382
-105.35604462863016,-113.89616669867088,0.08458693323292005,0.5192154474094477,0.45663534122764876
48.309420087685545,-90.27856970548198,-0.034084065216417936,0.6967105904283837,0.3353617703112946
68.32739449247642,-23.81190194469248,29.268002034807733,0.8967093492197451,0.43241331482632916
25.063910889738075,83.76412492355215,7.277172528181923,0.5439766314675114,0.3395075494785925
33.691152467038485,81.09847728478951,0.2974773734452855,0.8505317080601194,0.3304682546825865
114.47348762650874,24.116858519769778,0.22164356316348477,0.890046826420182,0.4996175778604802
5.601291186228181,9.939451672373242,126.26082301949813,0.5178918282426022,0.41574131769979294
-6.095055478086165,-23.49671462158298,108.252357893665,0.7287986948842443,0.4895142379185937
-62.065261545002464,83.45327671503763,0.23404003668581952,0.8730742796429256,0.2887183145544081
-47.9722604315899,-81.38660346865518,0.02275816981447909,0.6229690763622431,0.4880943639759454
-33.44862414727464,-103.89798713235632,0.09794379616007653,0.5531702634065113,0.2544333033904993
-67.20597923165066,76.7719416337528,0.3115286779788021,0.855574848738443,0.4815184721670094
63.85660611082776,-1.624546061707711,63.33873406162524,0.715229035348371,0.3482014051116632
-60.65141050661456,91.95785798155514,-0.1980616984862853,0.7667282058191852,0.49286005793669896
81.9967127210941,29.924934672913253,6.026027252583453,0.8557013063401853,0.48184866452870645
-53.97328641452949,35.23670651304564,31.776055286453634,0.6435151174893664,0.32770787381461863
-75.9210551431638,-44.26128618068989,0.023963077575328284,0.5252464107815416,0.3118241588394225
-22.8281066775436,-33.05241493336293,75.17196463716652,0.9347720415876344,0.35186134543029773
82.33987117321698,82.13608165181205,-0.2829307205639475,0.5378182390886814,0.4557115532854419
-6.340991902449277,-18.252472393969366,113.7495385399917,0.7216129125275377,0.317754361057769
81.87275467820652,-34.84460795388775,-0.021155264851488997,0.9673214431782396,0.4347533588564031
-96.68414489847676,-9.526633691828446,11.782493100039002,0.8909596646147149,0.48123022754803424
-54.45197561467084,105.05272099009915,-0.38520135770472075,0.5560588437250491,0.4991535563084146
14.520344429790404,-80.70299883560526,24.03908992987842,0.5422550047750776,0.4890038667824213
-14.339334961272032,-35.97937098339716,80.87630384127054,0.7953214924535297,0.45928961058977535
-89.93413386363564,88.34521701289756,-0.14990777695222335,0.6181093930911912,0.2874758628655639
98.44050887632581,49.763077645874205,0.09179132826331599,0.9291336899935834,0.4301015260462511
-1.2824181017551965,83.29163991161917,38.628831158446914,0.6946516807706165,0.2915482025999482
63.64641829055661,-69.90113076464849,-0.2769904652036632,0.6265216065869854,0.28393595995199306
62.92769475905913,14.44545681336351,47.728196092578195,0.5730110659595785,0.43215265744301323
46.15692753638879,69.37163671403208,0.1785186182158462,0.65618475065064,0.25385722159567237
-57.04089302690637,75.04443712217363,-0.2034559861519166,0.717590525739457,0.2530206429841283
-22.877364899898957,-89.27601413551446,3.6013980362554525,0.745295428879316,0.27948719195611826
-11.673295642714029,10.492973274684392,117.74762386384708,0.5466425470845495,0.28008927235871783
106.47916650191522,-107.03899926857981,0.15382561386899296,0.9500315087127129,0.34892989208493463
27.006316252595603,30.107013455774766,74.10094708764294,0.974231916498613,0.3717897104647241
-109.01896278534464,-70.34386094660705,0.005918795801423016,0.5691377291462757,0.46191239555815683
40.94043142776549,-60.756320716355596,16.222678982659435,0.9236733868767888,0.46570676254639487
-0.06844273238294185,-42.75918853797063,91.68506779575166,0.532255834748795,0.43444393562014655
50.35879936357053,80.56346401016927,-0.17354042721347296,0.8728512174195533,0.45983057239764974
-82.20237591730043,7.338482511033571,31.898580565039378,0.911376149196166,0.49559942000307233
52.65803586308537,-30.605758371520672,38.46923875338083,0.9747279235488591,0.48248077806256195
1.7498396137338883,-24.260453881010914,113.53037591703527,0.9613082363676726,0.29158482892281956
113.37290674328418,-78.82705219437781,0.22139427176792864,0.8451224358102927,0.421850306757278
75.55744445684732,10.745966098444342,36.58358006688781,0.5134481128043855,0.316828823256462
-36.11911756216271,86.98675537580468,-0.08091566668224437,0.9745308636126868,0.3774002488186916
10.6187654060373,-100.1520876681088,6.198578867808385,0.9473412536778036,0.33672354058872306
-46.97269135419443,82.60004121828094,-0.05122097958090854,0.5049734655503874,0.49283055309731294
30.244135376737304,-15.136022981478806,89.41610854314871,0.9869116187272573,0.4665683528358209
106.05194231627422,-44.40769935983306,-0.13922095709935,0.7574335838312616,0.4817862553884193
-12.11134554766363,11.989126196506223,115.91740479432099,0.6473649028807151,0.4786932634645039
82.2821121316204,91.67310507185782,-0.2640744250021589,0.650406618941521,0.39306451667134706
20.35946837809247,31.729870938712185,79.93501921965661,0.6716862965526911,0.28266341373288645
90.826067532353,-114.1775972206773,0.036885248341210375,0.5030799071737952,0.3990256722366935
61.242965539299284,111.49051764578192,-0.31715200359712237,0.77094863601394,0.4587208832115135
-104.39114149258417,109.83856145400982,-0.23696388246213218,0.5348209354576543,0.2695937745971857
106.33947593574695,19.500516394579268,0.05359381529468216,0.8171596988219234,0.33339982773855625
37.60003607798461,-34.885827267867626,53.73919231895421,0.647345376855553,0.41813875755624874
103.0599643566277,-3.5453936452288044,10.903898394471552,0.8073231490071712,0.31439462480544444
53.77298323294875,17.75896657261682,55.02219570848741,0.7652029856997811,0.3516115028883292
-42.67377818820995,-63.04571295182348,10.358058858319659,0.9171552994010399,0.2547979022995312
-15.833232094679607,1.2056419436179442,124.54949887764893,0.5124267904791595,0.335770145030642
37.60037726795478,16.8197763440313,77.11755055450526,0.6823023171828831,0.41502025704667134
62.74404792476239,-54.87977723277036,-0.11054735346172279,0.5697361965513257,0.2919078225912528
42.56050251086535,4.080445635203036,87.88985144670511,0.9904781542784574,0.42393566295513696
-83.93935545407948,-101.19751976337491,-0.30229136931890943,0.9419602812401348,0.4695965178904681
104.1912083315474,23.252317335577676,-0.11103914006779886,0.5337366024246166,0.3650827994647326
87.4295426343231,92.06039989440391,-0.3241004822343316,0.7537846260262351,0.42874826765410823
-110.25393632098321,43.66989221717242,-0.01202962778255906,0.9254717101450467,0.33724534291464414
36.75450140264972,-3.6722249012560817,95.18619505192638,0.7052556673134402,0.4768448566597777
-6.278011037183961,-90.91623670335605,23.777900164406805,0.8888094231467394,0.42775504809337583
5.084141231763555,-93.86358534379951,20.806698813562623,0.938163725806836,0.41549993732917645
14.745363470380639,79.2966375466011,26.307205675641118,0.8804148272956958,0.26105940757226
-8.994049726237211,-94.64279793575821,13.667633546877214,0.7453502446108915,0.3127915009393606
-35.009095357361716,-98.22814687748667,-0.2461152484981883,0.7196905943894834,0.2772879160634893
53.50922525007332,96.95388884389963,-0.14253622630602686,0.9707119748752266,0.46759141401724524
-89.11270437971896,-39.9261298726704,0.35316412074437287,0.7887860053503362,0.40415512876754
65.95862039001251,-90.41222736517999,-0.007527646157138412,0.940495873393892,0.40911861844718733
-60.09708322854446,74.72620699290336,-0.13917620380954498,0.987125471272214,0.3578170856983211
65.49799655752828,-65.98325536714167,0.20032685964118713,0.6921500899428158,0.4013260339504291
-113.77402477242892,90.05654969885137,-0.10420371734090417,0.9156783160239597,0.3810449380815696
2.6534580273539783,62.3803363000544,63.83893002802426,0.9542495008702306,0.3017170644612719
-16.566801336384515,-35.66874006327474,81.22492414274681,0.8976866283709894,0.49224073923834777
97.07607460003874,65.43032073556067,-0.040893206694558815,0.8701209594249965,0.49072438638255006
-76.21639315563833,-51.34728659726733,0.1266931434785034,0.6540556426023181,0.2899042744650145
43.78945065764382,108.75910033247261,-0.028569438647714218,0.9602228918412254,0.4468736008463401
-62.45869826625531,78.38655371126252,0.19772823518437183,0.9479498269126421,0.29074677521635883
-70.45622404281029,-95.90535442300852,0.003008505820405627,0.9433479705849441,0.3668798986505516
53.471164695129204,61.9234612804114,1.536488759741943,0.8835407148306966,0.47509177159780497
-3.2000817584638725,-79.8503830552829,41.40564954091425,0.8791984610174062,0.4091087063990767
-21.206547308930602,50.10921392765107,55.38448536573683,0.7883279443234951,0.2951167691286329
3.61171862292257,76.74346819432716,43.65726800872161,0.5292879441857881,0.47195894898366264
-46.62016894600289,-66.15412376293273,2.090111471834131,0.6204617185869359,0.4059269718225039
-53.594156379737754,-29.74972763840436,39.968608876449295,0.6366288203263366,0.2732704567406677
-21.332167919829786,60.9633877128624,41.06762090521025,0.9952622510606666,0.4614535426421055
-58.23373208181502,-4.2592961628207755,67.41277921262663,0.9368030055055862,0.3684561753964358
54.35168905776507,92.4937961472206,0.233603020381414,0.8988767383931381,0.3378777433133119
-110.38567367180346,7.911489922568213,-0.21036940320352115,0.5627535501928473,0.3230502704850403
-107.53697191515782,36.53244001355445,-0.2560558279370792,0.8380708962933896,0.3988329853904822
-26.00213588721085,-68.66057704570213,24.873114326351836,0.5210342409332327,0.49995706128245637
-110.05459942006364,-4.276147685741796,0.10873103138542078,0.9718347359038577,0.25916611247029475
50.623020445071845,21.023042910683433,56.16770222470205,0.8683616526833988,0.48796616738823945
-59.08716473789838,48.49561691275249,9.84219606396683,0.657469066499466,0.40029941450602347
-11.410526149641717,45.10728350875548,73.82252345535345,0.7055900529110533,0.3836678625576521
-16.868318468725093,-107.88796765391845,-0.11070927053797597,0.6970142656108754,0.3466978160733022
-24.869265508575246,101.80828875869311,0.11955775416487674,0.5699557531001398,0.3332187734116675
-82.20860514324076,-58.770546683634755,0.09650319864359702,0.5140715624074295,0.3268978742620961
-86.10967578343029,59.38959178977184,0.24239009933371147,0.9681315526639578,0.3684712907352331
-48.98315299412323,-1.9105938356588505,81.42349844168578,0.9743752294937702,0.4113175803197422
-109.76945213919157,94.58064727310088,0.05012119539654314,0.7774626069124835,0.3353951911108286
-72.99455507299284,57.729060500600895,-0.048261782509705864,0.6545628637573677,0.30479559615290075
17.341681446770256,11.690942764212666,107.89303979226248,0.6656398930459251,0.3338683560885348
9.182517172698208,74.14175236153015,40.735719523437105,0.8171465727403625,0.45789594531262223
2.6683813382002053,-77.61112209411725,43.48966641622361,0.5678682351094313,0.2542201753509588
89.7761269083832,-17.430485832406685,10.742448928563377,0.8893508836227499,0.3626976269584853
-82.95088340374312,105.86542693492098,-0.21579504140030753,0.8518374291330568,0.47579427147636566
-107.9344018954831,94.84953411114773,0.19475821862578457,0.7852905392228704,0.4222543153241056
59.28376046154492,-53.25005238275656,3.7375285225398094,0.6312338751601342,0.25524861852649494
2.043557847240268,61.32239905510872,65.79592965382625,0.5995673998283964,0.49664020667607556
-59.47309943447846,-30.411097456908813,32.302605381178644,0.7520140198611445,0.3010389253723875
-12.773801157304497,-47.51018427060617,68.92502372949644,0.9368528762393153,0.311747173243331
-51.87500652552376,99.68550498456035,-0.24254273706629467,0.83310320752527,0.4156963008035104
-28.736303075568983,85.27771056757791,2.6122279785435887,0.7633118759867915,0.4045292842044266
1.5926904645458724,-58.84900529213318,68.7027080012998,0.8516850207239891,0.25699040122187855
95.72073918521204,93.51818077251794,-0.2552062735078974,0.639506522074649,0.3604278452557321
-62.15602605083852,-65.03138991050902,0.134599025461149,0.5673670044613112,0.42185698176571473
52.984640920463846,66.04889440660233,0.038378213324432975,0.5304656190359477,0.3518557509707373
82.4233574931911,38.66089794103872,0.2133304920802192,0.8920797548943452,0.4151247678891891
-24.646413127665674,21.916452979564404,87.88709006272049,0.9771218928859586,0.3604189340358782
28.23646204314815,32.541241535699136,70.0413488685755,0.760529342584146,0.2991052965630011
2.789540546171569,11.645670772354306,127.09505224417344,0.6747252091569205,0.4834008534148512
-43.033518342608744,-79.80514113285942,0.2604832175929781,0.7985434040303305,0.345712721548704
57.376995797726906,2.133283133865283,69.77175004984385,0.8421308358919992,0.4722716316552569
-40.16676923598808,-107.6328713003598,-0.24970110833077463,0.821055833838193,0.25417961057405414
-20.776669260949777,-43.01733697613077,66.83823298451965,0.9292229791481408,0.37645783470602623
24.85513110473451,-40.42739394692512,62.144108667382916,0.7299309308341876,0.4289618870053631
-111.53990205349125,110.15765493336446,-0.33029696616959014,0.671231976777092,0.4348601386976507
-31.749554671274687,-25.629400339222677,73.50209209578504,0.6826902580079868,0.26346344416130413
-11.250404627383558,69.40310331955155,44.63283594056662,0.952903204820396,0.4018771090188331
-102.31855141637347,57.116628881472415,-0.07403113368791353,0.7791998042464003,0.2952950076493386
-20.828406574248174,14.103527699131938,100.1773736145862,0.6836297898255674,0.3981860259439927
-25.331453733231736,-96.95434165691627,0.19143466089283412,0.9927220647067757,0.41627174592371463
77.14884494592648,-112.57135888218535,0.42709678634540627,0.507505550915405,0.4686744323757851
65.26750385691139,62.37073239437379,0.15395996439142529,0.8822938834632743,0.42914612861653617
92.20551330763264,26.849360311704014,-0.22677287962792256,0.8488910697414745,0.27024545058011584
-105.63948092593164,102.70211436142162,0.2681913407530815,0.9862213880406261,0.30702897369457594
-14.467938416143596,-78.30016440784556,27.642464739138457,0.7051404092567162,0.39110944655297286
-79.53816855492201,-64.18921209221577,-0.2633042495120727,0.8949421890698015,0.39285158114146734
40.19209524430775,109.35259463852279,0.1159750570332479,0.6844716152387125,0.30625675740381353
110.01125631059779,81.94093598285576,0.21077759021129994,0.8669374117052513,0.4351426152434432
17.464614494964675,-45.85451071621089,65.73859881092888,0.519377758502412,0.36366051278520467
3.2640314347074115,-29.112860847670586,104.21174120930566,0.7727789103194873,0.34110064549615726
-19.752773414239797,58.70301778497482,45.45330905004481,0.9690823562493571,0.42865884640313234
-99.95561204424166,-52.37081092676981,-0.19149356186534308,0.6472986284571193,0.2889953321630892
62.0512820148056,42.95894449208939,11.281006563598241,0.7933862560467116,0.36594442513523406
-98.88997906990531,111.60576950022089,-0.05216054128728714,0.8495157411808043,0.36162934708244654
79.27786951110735,27.079937300939072,11.888234576054764,0.895267381068771,0.437094883513822
41.430038242903365,-40.625479933762634,42.169822086819615,0.9419986672047841,0.3210413356072501
2.217070532163275,-1.4308720522278442,140.7921155747173,0.9877905752017359,0.45836392407814
-60.52507990613362,31.166810970861032,30.13648185594077,0.5536996086111464,0.34274211052690046
-76.87368780358969,-73.67794831505992,0.27742042260581695,0.9566134230246154,0.45437975425126537
-1.690751493597764,4.975929842245706,138.11277949284408,0.8654599074294845,0.41529081235848375
-28.117759175430173,98.18476104488545,-0.18772060554515652,0.552837837732354,0.2571745509490634
9.820939920530597,85.43342362724357,24.628591301154554,0.6496206239699819,0.36854405683916547
3.9389852849054696,-46.53613585673098,82.46026571656203,0.6759091114609403,0.4561419959869917
44.53501510889738,73.16591468871933,-0.35253825403996863,0.8091995957209177,0.36692808290301526
-22.02897597297722,-71.68015278992368,27.466572779378936,0.7428653103508619,0.39813376110580445
42.70846637963939,-3.258982861859099,88.00963364319514,0.6504492870955342,0.44981718463812803
70.108409909382,54.64689459945414,-0.1959192675901522,0.9954332993130615,0.299250937103234
-53.35272253882529,56.18248571445663,8.108799559323566,0.9571707476077631,0.46939343544162215
-20.621490476518257,-46.3875880645621,59.8846999314271,0.5502167318519022,0.3630819843387061
-41.20438579138377,109.79833952839775,-0.2898540319647506,0.9170363238469202,0.45039023647540066
43.127682019625965,-37.028706375355775,44.352044719547294,0.7226285407831834,0.42469191953618163
-80.2079694157992,-104.28215558005283,0.36259214388842625,0.8844578084331121,0.37430501868794314
-103.31663229885145,-70.11180498036612,0.10682420277968946,0.553357027724701,0.3719798741050071
95.24743180451557,54.96254688227819,-0.21773885015508285,0.9785765762813095,0.41286326563974307
45.654246878674904,-81.07228047134211,0.2326203357874687,0.5134894309562468,0.2670415099450931
-64.76695208664515,98.88131359993704,0.07107277444015392,0.777362368461396,0.4360664107457094
12.649092511133977,112.28156780890409,0.281025472595016,0.9460886027519899,0.37903159971512224
-93.49909295448349,36.12319916601948,-0.14706842407868181,0.6565345898325959,0.4749344671297686
0.47619644615857815,4.021058856826951,139.69127416346544,0.9450270662824609,0.42962300083100147
53.215347209863495,-60.23190449358809,1.7252789944462994,0.520701930974768,0.35090146018437374
8.934051874819938,-61.0576143472355,57.101979458675274,0.7170164009553144,0.33795245281616904
53.18148800053245,19.25468265551538,54.4437088425137,0.779322456605399,0.4309549594502645
33.361270478652735,2.945350863226351,100.93791805337649,0.7022346883689041,0.2886997053146191
37.00396407517671,-96.66056485147796,0.3425801257107208,0.9369676871753361,0.38560698976155267
-105.38053682680047,8.108715456979331,1.4015978084854939,0.5377500204372518,0.33724006292298075
-78.58201411046615,0.6687352363565129,44.025195447203174,0.9761845194178357,0.3056899688430742
74.85573885667597,9.065257510725665,39.17875860167992,0.5362423501233549,0.2770040319090379
85.42765092633314,-37.88640208162511,-0.013644736440313832,0.6657593513362707,0.45276493490268943
51.77607195009848,65.67481306673005,0.13841572777857425,0.6503545658674434,0.4291650553808305
-90.17732866747528,20.108552584758677,6.448056348223406,0.5221787218035923,0.35775609663451635
36.26195562072301,106.37878083695993,-0.016193566899150247,0.5306324265087456,0.3038652010270921
-13.918895529144304,-84.18697556200269,22.874652688130862,0.9054416419372082,0.4759685204789934
-42.7928492834061,6.447309221868136,83.5096527204005,0.5661466914361482,0.27392506121395355
102.68664813736393,22.52340591439965,0.12873772010257967,0.5147525311593937,0.41492183849435327
2.988810997990761,-37.13823395538488,94.70862865027625,0.795156154658003,0.450835440795578
37.32073641771616,17.560503193279057,77.4434847162132,0.500436319089387,0.3538436996692752
64.32477080037035,-112.71674981757859,-0.19896989700900564,0.8555842286116746,0.25379902727848397
-19.409976459993764,33.44829979188451,78.99860320025994,0.7533042141431318,0.3039205226945281
-94.49464987058815,2.3636838044054356,23.12406953436569,0.9006878156059657,0.3889327176443343
-103.66603432050776,84.37115401429287,0.08950278905682574,0.9471754584790658,0.4568249738568685
-101.11221058963827,55.80492414982327,0.07164600378152741,0.7707709956340334,0.4531450382080501
-66.20192201259908,-99.79852208360211,-0.28909021918571964,0.8475549353915162,0.3957374454096363
-33.21324487000131,-71.15365046350047,13.865908724725434,0.5695577161435144,0.4262887441718777
-90.21191011690605,-29.05044599090955,0.31367152061816905,0.9609092789317033,0.3624784054047234
-90.54146110909299,10.468720009526315,17.550056214970123,0.7189809608395994,0.4486744542343003
59.33920681829253,-37.545987615471304,23.76054756449921,0.9373809701791427,0.4490031145495057
74.96952150187387,-84.44453118973897,-0.02224360238978984,0.5946219824748327,0.2793305783753454
60.63082756531342,107.89171367899085,-0.1417016642818128,0.7655877057414575,0.42283277040811784
3.5619838901527237,-90.73880378545968,26.54904626478536,0.8269720357837506,0.4772721935297097
101.82974259155189,-48.4381887028473,0.42768028381635825,0.5293741197812953,0.46740821390001763
7.17804173951184,60.15001710071863,59.98282032105072,0.5343770482656136,0.3417439725664573
88.25465579815115,105.50755290660969,-0.309608416294854,0.6707649028551381,0.4281587421019295
-100.18497911225523,-21.860693110311672,-0.16720917648262915,0.7956183790688203,0.363634489470714
33.345177272292396,23.929454070070612,72.34806947021981,0.966770710398482,0.36197132029395607
-42.02085825377501,-100.4583493770613,0.1744818326212645,0.6132369008378784,0.4051914953087008
-21.12835938845442,-0.15370172821344846,118.12014417945288,0.9168779314617861,0.46880173916856316
-102.95943422328072,-40.42750162922155,-0.06679909394600858,0.9819213654349018,0.4338879125526155
69.42715092262189,-110.93802013312435,-0.32041841933972476,0.7017378259237048,0.32298679323267376
-54.382807120047815,20.74379369848752,50.30376026858773,0.9700502443718404,0.35908046138538297
-2.7241666806224294,-50.8497626519879,77.81002040631549,0.6000150095120813,0.4276464765397576
113.81736076480047,71.31595164867505,0.08158567852244014,0.5451054101953565,0.4976193597888471
86.32245353215419,83.28586096886194,0.016021341670106548,0.7237104509748332,0.25995098789256865
-12.415901820163151,15.874340234099776,110.02201059993504,0.535513774467141,0.27484814246182754
103.07088237411011,-8.772579598544306,4.9469204026094316,0.6872928534857378,0.48665829427634744
6.56738430600447,106.8227455500601,3.847098850312297,0.9618536913841155,0.46831830970249966
-42.46678036388376,-105.82441685764792,0.2942633497384112,0.6257462177557732,0.48204549290176724
57.518542394458635,70.86685882616278,-0.23520747055367183,0.5381173982353034,0.38391616454027655
-96.52999815873683,-1.2946578600955525,23.376858659699458,0.8643750506678922,0.3403081522950281
36.3785236034369,87.76507714561136,-0.2988190991572817,0.9618644275097431,0.4301854723970612
-19.6096451000029,-62.77682767140649,41.24432709086198,0.7783237879123874,0.38361648281342586
-114.44944448748393,41.054985760041546,-0.07393654836112429,0.684861764987567,0.3826839460679958
24.05724196155586,42.33176658098775,61.3961709193918,0.7199555619653452,0.2602668927702254
57.16989801680978,106.17340943117347,0.14060133264902397,0.9599583620403042,0.49921454814577826
37.890167312306815,101.53709476932202,0.29350516800966875,0.6131253816517226,0.4245738887717456
90.84974845996581,54.498476690604164,-0.1568636170986123,0.7962285560669256,0.45105575105014106
-103.28634630194072,-44.093248517564646,-0.051467635694485425,0.8820231379113391,0.44685412938138314
-35.55215813809647,-89.53594720060056,-0.01832889416281941,0.7987011283354589,0.4881138838200054
94.40922963667839,-49.081604854302924,0.29133867649152334,0.9369435842652498,0.477278713048904
-82.0975734466116,-46.16266485414462,0.23281602276436353,0.8274130026531927,0.3493634520681511
-76.80418304798407,106.41552083430865,0.09479589700394814,0.5760985313312881,0.3238385945793162
-42.58467961645839,43.334283936292124,36.99811016986183,0.8565887557964407,0.3940039307159764
-19.382655824735618,62.648232163697735,42.52208023694003,0.5899079235243254,0.2978213726289196
38.21519541626606,-56.74295821015323,24.90586809968219,0.5140418883453727,0.30358689866669175
-30.281476831775507,4.301489526957917,102.76538065045142,0.7072657855778084,0.2859700254192053
15.001277254898156,42.81741729039862,73.33953841463119,0.689004956656618,0.3057370140562943
60.95444659715089,-33.77988982825855,26.335264896706786,0.9079054685025327,0.2989882095751588
46.13257219144844,40.81527949264648,34.65124337241854,0.6490510044178066,0.4557754247190716
35.46626852726269,-92.08163361774054,-0.15724838533228194,0.5479485645922084,0.30006267993159647
8.196291640539641,2.244235896243695,133.26068545003483,0.5570091702507097,0.47232696246104927
-40.453998668664696,78.90208636153963,-0.24762756660958546,0.8576146617564904,0.33000767513959717
52.19876556881132,-110.73989513926516,0.31190555736388625,0.9205542464510039,0.37671240221037294
-84.11881374651198,-86.75938006963435,0.16473864081419703,0.8863894831097042,0.3754406621554413
-77.18069533239579,32.54661935858765,7.809679416316069,0.5600465439137683,0.49516805142796433
-33.29111142172742,67.1444503125248,18.222779611666823,0.7177216539169506,0.33429180585607665
-75.19829358276549,22.144048687944554,21.9642040980928,0.9650885230465613,0.30707505475650076
44.58274318328351,-36.85997481927534,41.80672919298156,0.818748108655084,0.2511132772576887
-114.33232953357711,-76.23920168422157,0.043027789200510036,0.9953300342999757,0.29430564310026364
-15.264365466689439,-71.23312083180443,35.79123874362598,0.6962292121953653,0.295420780175343
-11.632421402202525,6.513625734526979,122.56498694683323,0.8343499749218272,0.4722734078930221
-88.4970389723943,-21.489364276978606,6.836021141303509,0.6423290955940184,0.2636589482396957
78.84365713762372,-41.86180173674329,0.03847253163505315,0.7658527975158884,0.4949690790213388
-36.21514221304792,-7.973246116543376,89.85700903511461,0.7601305455322775,0.3886930412125721
-8.401149597886143,7.534355443855671,124.65321430055268,0.9057267023962972,0.2928382352483815
12.213218228843532,114.62998217516255,0.11144081119203691,0.9751163118224373,0.2586021554451108
105.71834175807474,113.78319988490718,0.14640731029723708,0.5609807468599101,0.47350267423495773
76.97192538510821,4.558767392685845,42.29547313609,0.9703128867195383,0.403302910632125
24.47789421942879,-17.03097664203314,93.74104447361965,0.7257895378789045,0.38581449997582284
-82.41708473028463,-52.89972360666245,-0.3671532551341503,0.736616017839052,0.40269273273729955
27.313942127543665,34.081588597211315,68.82985306864802,0.7065379983047875,0.40768345849203813
101.24453089253143,111.33440248534572,0.08860463553759163,0.5623124119154916,0.3217397314386221
-90.90261817278137,-38.93629818461384,0.022846628621785547,0.5920215440079033,0.28765170992874683
13.532851312626835,-69.78968100341667,40.43993477678503,0.6546279596430506,0.27054348744215345
-50.464845434159145,37.813121933022664,32.82417263869096,0.7233396594431682,0.25684499740633926
104.29164538605114,101.31664903420858,0.26752009159662504,0.6771640006971873,0.33700399665504355
87.65144562347858,-69.59432360863721,-0.21445274558304628,0.5833610745033543,0.31731886476970006
-2.0857436609251048,-59.04625881039088,70.4093016393211,0.8989100298515778,0.36610295641714774
112.26924126055732,-34.483265371318616,-0.23924147003896823,0.6785762575669809,0.33977217642087243
106.27360285316422,-49.65679698152742,0.281655519275022,0.6217391906525955,0.4610497096454463
65.32742356137851,-63.45237641974242,-0.3038946292203962,0.6541801569263839,0.4227894456307618
-10.074310787073276,7.54799736043112,124.38015062919436,0.9235521345143599,0.35896115347613633
-33.62373328701903,79.34577839649265,2.1803213242098574,0.6077577934416457,0.4253580550391083
-1.5976045936060723,59.444510751743536,68.31728997694898,0.7058955071200299,0.4432456092310231
24.548670336271897,40.190727729811584,63.10796868532323,0.5828608547833335,0.26861483171179146
102.15984768944598,-111.69953768916567,0.019276039144767054,0.8605365615315166,0.31692472133257765
-21.09881977466953,-53.95645064952288,50.49194099846928,0.7225246139896606,0.3507374397234744
63.11888577731343,-17.80994313815524,43.53589131389578,0.7645639248165299,0.48743949657707997
-103.43419708595856,28.631120657645905,-0.08104042122850497,0.7745405089011657,0.46983866472219205
-38.427609564147055,-106.92765002886432,0.17673816622049054,0.9221603896501025,0.37809725057696486
98.04251447244792,-104.2916261549694,0.07374007738311622,0.6597130300369685,0.26807205036101567
82.28497421749508,-100.68423973796018,0.2806605378741809,0.777199481605007,0.37524608113368396
-103.43678648270546,-34.79549124772883,-0.17622237632868515,0.5010989921519748,0.32615890182825036
52.198417481540865,47.36358976683846,19.670485910794905,0.656716737959105,0.3944902063429706
9.269851238829968,55.2275948440732,64.78647608152954,0.682210433975994,0.48250242649825714
109.74843013661437,95.25179463232537,0.30437257018301606,0.7256717953407364,0.31338663726815524
-75.98997649978713,81.09024894049777,-0.2162182197222623,0.8215436015663458,0.48268802708806674
-26.300212575260446,109.30690229608031,0.013766366539279595,0.7402143350777795,0.4314147591362143
104.33514652739903,108.20813473097004,-0.03902562048216274,0.732668891605545,0.44658574022772635
22.411282715353217,-53.21392538639487,50.321217713616335,0.6129604144685583,0.43272147758340374
49.02003185936533,-63.32605147199298,3.1215986334321264,0.5298433190612769,0.3411426088570291
-58.31988534734462,22.615776519669126,42.85988654084896,0.9918723441999506,0.3054624553807521
27.923197380021566,47.688351565100334,51.24583075024567,0.7623202684141077,0.3903010530259735
40.89171830881707,53.64699057318937,25.341664168271166,0.6321968545044323,0.41484579852296866
-21.887115286640697,74.9114296485094,20.77293624766051,0.9876762736330904,0.4083401606356486
84.71122133084405,48.34558854072285,-0.25590242699980587,0.7068782921647865,0.36999426880660347
-91.00633266953974,-70.26677698169892,0.03371857149169216,0.5079141858010918,0.2628440794924039
109.01388631044654,84.99204724918802,0.31138915657280164,0.6085458099870118,0.42417326214466833
-26.5260399134374,91.25901855270698,0.02979211825341954,0.6361934477227492,0.30727726876759465
-112.97008785136389,6.9633653779166895,0.1500674974132118,0.8741152934835805,0.3179878150932079
99.39959015390718,-76.13530268574218,-0.023225695564730003,0.8922757779286721,0.26885161640462885
37.949690193203885,48.52050286350497,36.46952074337786,0.7139936555767654,0.4148746395097402
77.25025615382481,57.51434992119879,0.06908559546988785,0.8321177465392763,0.45008851755453655
-71.46509490350209,-64.3194292479215,0.17864386430865753,0.5954096988444757,0.3233134492109072
-96.4920367095109,-63.6186695957923,0.2756531455808179,0.7144442088780715,0.2812605249853418
-7.908420553585895,-41.598140788340125,83.45367820679917,0.935151771592176,0.38044935360329224
-29.957454406689784,-35.3585180078121,63.8795882138542,0.6398537443259531,0.420831028484815
-88.12294989251323,7.88799345750645,22.973959470932222,0.9222980324609344,0.36242842988510215
60.79516333573229,-79.23726780966665,-0.24303256839353693,0.7004583487382823,0.37095324835978893
-69.57041814999431,97.08663133466519,0.3698770314026544,0.6324470567182774,0.412006751102153
83.49955032371679,55.4676343762219,0.21492677275381478,0.852714092375003,0.37304694716146836
4.9054264885401295,8.717680710028633,129.79782504555465,0.8892726383076253,0.28530613135948346
-79.30601033294617,-102.99857450821342,0.16465501696045182,0.5314604657999383,0.3112611195564715
107.53974041629638,13.293615547614541,-0.10172588533530585,0.5496325980700529,0.3795869053402612
83.0341327702416,76.79270850420845,0.07161420110389433,0.7390041111786952,0.32301100263619464
-67.58301476878563,77.12875473683121,0.20299500978143314,0.6708699884975398,0.3421420057035297
-33.63328886413508,64.6612475149109,21.4502024182929,0.8555056352152397,0.3828627280902982
23.21641650559427,17.89120781385408,94.31248594082496,0.9374013961502625,0.49534119303049967
68.8340830498486,-73.0105166226308,-0.25963442529503333,0.5812397607427223,0.2786517284826642
72.45916715326112,19.157585269473742,30.43611968460635,0.6705748427183305,0.41893838676086737
-28.636776251632185,66.45242739589995,25.468629794464746,0.7791815974139888,0.3683758445963656
-93.88224287124604,-12.110740849664035,10.212908338362077,0.5264264409587393,0.28071823325198175
17.24283526642716,73.48142285512209,31.879074027101115,0.8333934544309907,0.49312356064217044
-106.16475697196518,-52.51577009765052,0.1674465384854779,0.8058611341572219,0.4969376607533484
-6.209953654753103,97.08634781684745,15.577705353181946,0.5288602163832578,0.2828103843585457
102.48155732409828,56.159727598274856,-0.461611497022076,0.8702928072612909,0.49677051888512813
-27.727874415519857,84.73450394974763,3.0471578087398576,0.8046459174276834,0.4048028745260062
-95.29827766249858,-19.08367149570927,1.1680751663310973,0.6665107508789612,0.3524347422105696
-43.127895525967105,-35.596114212774125,45.62272087343443,0.5714982599707659,0.43320405409169427
-88.10805638839716,90.14331345850424,0.08277180995308459,0.7411780993709113,0.4492490920346566
69.75819922042135,-44.83652722709754,0.3758569377474841,0.6260664388546897,0.46862229824062984
-66.28592846366232,-76.45869105783954,0.12918023683872365,0.976685708090214,0.397954880143873
-93.99292198148174,21.176518793340996,-0.033774862307345443,0.9121650878891405,0.36524933422364864
-70.132266018782,95.24055099876945,-0.2585403584073275,0.7114762382451945,0.4249785750284689
-75.52907110938017,31.60510914197027,10.418976722772673,0.6010222627839876,0.30141774621419964
80.92936838290174,41.11135121992897,-0.07133927385514222,0.5282446418420117,0.47911665126727376
-72.81973695054077,-80.05391303204351,-0.005011552268016473,0.6282218855503374,0.3633050209107089
90.76499905495938,65.1245838451285,-0.2555317539103057,0.7061627233877679,0.4989109384674166
-13.722231101919592,-2.5776195183225195,124.4377957025686,0.7231551279369879,0.47217909464131125
94.02494779228635,43.61694363562227,-0.17029192477398195,0.8683203857627477,0.33709430204556623
24.065990708705463,-27.567674679757996,80.35417273248686,0.6252857605850921,0.3280581705455409
-48.92597419355855,112.47881267473396,0.22976144848273894,0.5184882456809424,0.3021704989042483
63.298243491326204,0.16750928369142837,64.76491377960922,0.9780320489751791,0.3403286861336543
86.38325800759681,-17.0323745483857,15.259259109704335,0.513304415990841,0.46945176325555754
22.064659293374948,22.98284795007081,87.89496981395926,0.7182448440257212,0.4721464908727412
-82.35581678442728,-46.79220867020204,-0.3771522194323819,0.9042131998257614,0.47648361343953927
89.47851961003109,40.93448721723366,-0.08191365540909468,0.5568584442279386,0.3965442973245612
-4.446598804460853,9.158692939927706,129.39044047611102,0.5575354025515071,0.27241069780013516
73.1739419844712,83.00167320343716,-0.0026877323110842677,0.8883525166038894,0.28229046989764983
76.56479605270172,-11.439525115852478,34.13588745357751,0.5357033748558429,0.3996119571036605
-30.363956885316014,95.49655017267338,-0.25244778978735405,0.547324476887088,0.4768087344571625
-57.9434383153125,-10.184317838293174,58.475199153496774,0.8708519375316185,0.4455217642676248
-100.26899150734826,75.31098685042065,-0.2863701696270782,0.50472720983368,0.48813654404421564
-63.37188887868395,79.80784919597595,0.25671749881999795,0.8081550587619567,0.40412068884552377
1.125998588588586,108.74088085858027,7.255362940787327,0.725212318267398,0.3086611462390754
-10.11227277936398,-111.82388499077754,-0.17794787585216826,0.5612221819165795,0.4533437998286841
14.25287148630995,-83.89904858034497,20.04692854935311,0.8915881822809923,0.3501385334752376
75.75358991812898,-36.83190521027014,2.459585608966197,0.6073652611950482,0.38645534720651753
94.99702033218608,90.76510284821727,-0.0916881085988322,0.7928505478895626,0.4921852475307319
66.8252981170055,-83.45592979495561,0.25117771692850926,0.7072642091505732,0.4843146685662591
-110.72225775450755,-21.93623272219829,-0.09360219700152722,0.5866995146999586,0.3685815407915397
66.40959115395776,-108.19175268051728,-0.07387053413494349,0.9837622919842233,0.3683324370824054
-22.249699322903126,-80.63184857037241,14.389739072566913,0.720449157305364,0.37866514740546464
-60.20841275634995,67.6481482636413,0.2871189011574492,0.6850981818533941,0.3118138668726357
-86.23474087404203,-66.79579540569729,0.1122667742389527,0.8973270248008782,0.38303569787483416
-49.3949967952545,81.33786556107002,0.15991406955333898,0.5813067834343766,0.3502366783763219
14.47120400778032,-9.409623018925128,115.48349011583164,0.5372131754568061,0.46409898186105125
-8.678550827338135,97.0410809649249,13.050366288119008,0.7830970615804946,0.4267155029340324
46.42719031326697,47.09015835435143,28.8094062415919,0.8983175474945865,0.3162490880358737
2.184971311068612,-23.59409736360177,112.05568298133063,0.9122842548776986,0.45928034188887595
81.88734820202387,60.060828748134085,0.17935410040082245,0.7982904577956358,0.2956780626296136
102.33425364910195,113.9286452938007,-0.15507326850782144,0.5732516048663787,0.25804700677077563
-0.9357915709513323,-64.27095025911842,62.12076729979304,0.9449615894598089,0.4341702883481275
64.0160108036672,-30.69153299496133,24.96853322329357,0.5296490634660292,0.31530037041720227
-92.78647336193386,-110.76209749497828,-0.2542059010483206,0.8092546088634379,0.30681348236103434
95.00354236490799,-44.58973921747461,-0.3301323826383673,0.6193285474463589,0.4003577132880888
-22.387830791747984,-53.08992430884757,48.591906917611595,0.6658050981467893,0.3012620356710758
-49.015457684011565,95.08110584529587,-0.0215744578386734,0.6295086522621508,0.40702678289303673
-36.82132581041147,40.429909316215486,47.38598586373367,0.6813804321531399,0.3076295641916467
70.39215926580071,93.96877188578102,0.053938718037174704,0.5051655036959981,0.4639957571709081
-108.39544374697874,64.22839216463728,-0.17526228134421828,0.9328171043476459,0.28941033034713104
-43.06022593905424,8.844941224885243,81.08692593373233,0.6884326398157155,0.4329696885277741
-70.37837101913166,-98.29879602681751,0.3335285561499398,0.6515035886543197,0.3338942275637192
-89.90239053686824,81.32557744465835,-0.14713845597585273,0.5324381892505985,0.4946544734314775
-11.326235956318794,-100.24694829388015,4.598636081356805,0.6056709608911464,0.37497227556158996
-18.854755349567526,-23.87515305774356,91.4490378634635,0.8550053727677265,0.3703864834964838
12.078090590007225,43.34116130367666,74.42054146230855,0.9885187797695717,0.36053933222222934
13.672980269421684,-115.19260974828758,-0.18249847436076827,0.7441949467060345,0.33989860824146034
115.00567973875951,0.8479478445047294,0.043855878828215844,0.8583510821936274,0.4810001397682244
111.62881564310763,-37.70468506742978,0.3721058302833031,0.5935090795740294,0.4150081617109322
39.86821210695399,-88.72384617410424,0.3758909805053927,0.531252085942978,0.43595077776273894
-34.3159924188529,-8.781255134839878,90.580598163557,0.5358128190464249,0.4174717657950806
16.755837700536418,31.305413814773058,84.29756806406976,0.8078266145293682,0.3006425106487283
52.58628192899026,-12.097516242531775,62.922088642354126,0.7021299619147022,0.2969303824866997
-34.327644574441045,63.608410189710476,23.22255385864123,0.5631542822958637,0.4945277984533162
-110.0326061024796,52.2587824988337,0.3633223537863257,0.8412712586131521,0.4320009609011579
92.18390505173393,53.287043328333574,-0.2100972069895145,0.7475595973708548,0.40205543418017664
-107.52985073654202,-32.98789914959493,0.18868366833728983,0.6032191714249469,0.38606178356280857
-19.07575715589225,-110.62362580316162,-0.2558962053031515,0.7157064020790014,0.27031891463956054
-59.52469853358639,61.542134694264206,0.0680061005851812,0.8122545591685977,0.45292086647330876
-12.55500056240933,29.497705181842655,91.44237812437659,0.5883691702934608,0.3361070134828029
-15.247685073761847,-64.32839269521183,45.63002284345735,0.7537553964032402,0.4364868827895579
108.95334243680087,106.97052764008164,-0.24682480415500652,0.657370062286282,0.2830812029235534
68.54890578655746,34.04132408605774,16.36309840735002,0.978833874002365,0.49799178792159954
-10.190781102502463,-32.233614559763616,91.64939610457061,0.8790479610057393,0.426775385823785
101.77370587407222,-67.35381293540114,0.004636219196019975,0.821350757888484,0.2873344601179689
-28.51475696951414,30.815905391301726,69.80214151945484,0.5374398608090184,0.4595204674049602
80.42799400932131,107.20837033666876,0.2144354285558221,0.9534845499926818,0.37282571661983377
104.28350474978296,5.588175691062161,5.774085198228683,0.6385917458100594,0.3026052274394414
-46.34802542706659,-72.50384254620774,0.07471438445259948,0.943033330307834,0.4754854057556812
-91.84292733762578,73.79546578311941,-0.11203783867773409,0.9304363911738862,0.29083624280542375
53.90222785711394,-74.61515897148271,-0.11317384118605606,0.8680792299076281,0.3029287858691198
104.05990640098734,63.80151265171955,0.1349942203251246,0.9000101606348994,0.3555449542405713
113.09304070337164,72.74146053844784,0.22159071905037642,0.5457352761382986,0.4579124904339491
-38.360472638459925,-98.89169135301965,0.07871358047530203,0.8223657268037365,0.3325369615407725
-80.84373088158549,-53.18419534053773,0.048418732553409394,0.6682567140936269,0.31869990882177657
-92.91513871164297,20.295667674609263,1.7039873009451278,0.8615406933499603,0.4709857035053613
-0.32793076103381014,-9.354302664941955,134.13490405764537,0.543872127381305,0.2994101691365131
38.829118241706176,-41.79958505471043,44.63898136654384,0.7986337779436483,0.4659030647103696
-21.96201771066359,-66.6289142290994,33.10968642454397,0.5844045419095498,0.39441672866000266
-12.825150405364178,44.22278577572462,73.14078670225663,0.7187371889974794,0.3825421218643307
-46.235527645025044,45.889166694313865,29.626406370807203,0.9175766472440453,0.35640875207869727
10.935205516099478,-105.1187777069647,0.08044452013661452,0.9775582259780771,0.4666914827123243
73.00471479902146,-85.51085615552222,-0.14697202203698576,0.6976618775695538,0.3965337686693451
52.31782945754627,-34.148233498037,36.755048847920335,0.7757284904955442,0.2620888641631185
110.5982857635102,55.155147816736175,-0.28397883298862336,0.9017501416828801,0.4271826044989526
96.69927845154433,70.62719594907792,-0.22756776213867053,0.8607943445160782,0.26773694997491404
-103.73339945431334,96.92852008556065,0.36111075089873024,0.8355016396717883,0.37778285511125453
-81.01727396963929,84.80651981021846,-0.0478287587922164,0.6417424962873324,0.2600217044289623
16.99861756120393,20.932594223297453,98.56500148683449,0.6018288261287851,0.48492910776012677
9.201697547390015,-65.35377581662551,51.58650945965486,0.5727895821336958,0.26608776161015
-20.50176853073356,-82.31121659153,15.896458187438366,0.5449249408170425,0.44805624301468727
-96.70429994008694,-43.51661665933592,-0.363236421523236,0.5726695228490241,0.4207662152106968
-99.21370600016976,-67.95305692206121,-0.1882794973723785,0.8221496156953016,0.351255449464529
81.51332263747828,-37.874308886514,0.23966512617477354,0.9604995938965475,0.29973391769332347
-105.38536503334298,-97.59818082377998,0.24464531068512047,0.5984093037913345,0.26837783599061
45.81345923985358,95.1408286629758,0.12470707012866022,0.8026935255557398,0.25429499046442905
87.6460117491168,12.379068880536453,18.79976563956209,0.795484963283614,0.2770890739356849
-44.57003195347558,-79.18859631382777,-0.04161605149266051,0.7481546253272814,0.3662390148077872
-88.37092853108028,102.90668270893978,0.0543585662706953,0.8464397320012704,0.2794972308809799
-36.30098004542239,-100.63104472744587,0.24313221719574102,0.5871186807412405,0.38694760690049795
10.892430186614135,-52.45767153742318,64.0592692080524,0.692117461527568,0.32421635463515
71.8715349331268,32.46043995957404,13.408571659122773,0.7617704585188867,0.45566759142755653
-94.548344820666,85.94712891373223,-0.11140177436197635,0.6553576213686285,0.4046892732201067
90.2523104130392,97.6309060840618,-0.12354916034880042,0.7124733496076456,0.31152875432683524
95.67525247281414,19.840719701682993,0.1842860794651584,0.6307185005559932,0.46257201126035186
113.72415890750875,51.82685578834696,0.2620727934275079,0.990187683576865,0.2785154353946957
28.849352160941997,99.30444619270637,-0.3448139810583183,0.9462886061099566,0.41290275038803437
-3.2582462716507257,114.40938869925017,0.159719324702442,0.9904363928226299,0.3479799931773526
23.7795028400841,-43.29641998494406,62.025308853518744,0.6995601505792972,0.45600830546117954
19.045727497387134,-102.93503446492156,0.02677724624992961,0.5324003294747719,0.3739873048496414
30.169337037814476,71.22984927866884,17.060477064522775,0.662038753761681,0.4767011744795091
94.26124629420386,45.89581547251085,0.3714447898208746,0.7684905490289247,0.4439370991672664
-1.5047429067024258,-54.248944941528016,74.81204307937747,0.6595537129876304,0.26754035178200614
-11.872630828206304,75.08438605845994,35.4910428135346,0.5383222925320494,0.27482198571068295
79.47887841593848,-80.17247879379846,0.3585610001886028,0.866353870981235,0.4326441941009721
35.22277919162235,87.01170794761708,0.30334559851308296,0.6385075351017333,0.3758403797246884
-58.55127949435865,8.397915068968942,60.451321060358474,0.7440468005107205,0.30726028186932214
